# .PCD v0.7 - Point Cloud Data file format
VERSION 0.7
FIELDS x y z
SIZE 4 4 4
TYPE F F F
COUNT 1 1 1
WIDTH 1290
HEIGHT 1
VIEWPOINT 0 0 0 1 0 0 0
POINTS 1290
DATA ascii
-0.0013919706 -0.039968003 0.063384496
-0.00054943288 -0.039963774 0.063666955
0.0004192066 -0.039974287 0.063669823
0.0012997021 -0.03996902 0.063434973
0.0035757702 -0.039948963 0.063350521
0.0042600371 -0.039993968 0.063922264
0.0057665724 -0.03973924 0.063444249
0.0064982809 -0.03972628 0.063574746
0.007511985 -0.03920326 0.063528627
0.0086419974 -0.039565973 0.063267514
0.0096647441 -0.03919664 0.063772753
0.010450823 -0.039073817 0.063587904
-0.012760278 -0.038494825 0.063804775
-0.01123949 -0.038598355 0.063604146
-0.010604914 -0.038573563 0.063628376
-0.0086065941 -0.038715672 0.063572049
-0.0077470029 -0.038970351 0.063251197
0.0079253679 -0.038942147 0.063560769
0.0093547665 -0.038570173 0.063640535
0.01043222 -0.038461 0.063514344
0.011495102 -0.038735159 0.063467547
0.012784831 -0.038258053 0.063442357
0.014122549 -0.038014099 0.063599966
-0.017262409 -0.037111938 0.063505508
-0.01668348 -0.037206136 0.06361457
-0.015424192 -0.037434671 0.063164547
-0.014620576 -0.037570581 0.063600197
-0.013489742 -0.037712757 0.063709952
-0.012572 -0.037821557 0.063393474
-0.011546638 -0.037868857 0.06368117
0.011417444 -0.037667919 0.06367559
0.012337281 -0.037907217 0.063579686
0.013372238 -0.03752736 0.063527688
0.014529548 -0.037353478 0.063412189
0.016216602 -0.037092216 0.063183218
-0.018364247 -0.036234595 0.063348085
-0.017712625 -0.036089644 0.063317537
-0.01639547 -0.036303829 0.063518852
-0.015520929 -0.036760814 0.063441433
0.014072372 -0.036957607 0.063912317
0.015703676 -0.036647625 0.063751087
0.01739626 -0.036208343 0.063330203
0.018543759 -0.036240309 0.063798152
-0.021024998 -0.035213232 0.063897431
-0.019575663 -0.035289824 0.063439034
-0.018514456 -0.035447136 0.063551679
0.016911102 -0.035484072 0.063452974
0.017718345 -0.035492778 0.063734889
0.018606395 -0.035656925 0.063587151
0.01958226 -0.035259165 0.063417807
0.020455413 -0.035141163 0.063341312
-0.022452334 -0.03423268 0.063374951
-0.021567637 -0.034767076 0.063630693
-0.01906354 -0.034336507 0.06317021
-0.018902788 -0.034467191 0.063885614
0.018240128 -0.034613725 0.063223392
0.019360067 -0.034003496 0.063925661
0.021450747 -0.034113772 0.063049354
0.022063794 -0.034199201 0.063790262
-0.024141666 -0.033215702 0.063698843
-0.023850616 -0.033360295 0.063067675
-0.022270793 -0.033856262 0.063549303
-0.021268135 -0.033881262 0.063947588
-0.020463122 -0.033565603 0.06384477
-0.019982086 -0.033836193 0.063247986
0.020684795 -0.033305589 0.063606739
0.021354191 -0.033521995 0.063596003
0.022532135 -0.03334989 0.063194022
0.02331369 -0.033390641 0.063145548
-0.025531281 -0.03220297 0.063706286
-0.024519449 -0.032646779 0.063858874
-0.022413693 -0.03241441 0.063415535
-0.021709444 -0.032805558 0.063048258
0.021873625 -0.032539666 0.063474312
0.024560021 -0.032385688 0.063637927
0.025070641 -0.032327268 0.063773498
-0.027293053 -0.031195879 0.06349805
-0.026165985 -0.031191722 0.063350134
-0.025642956 -0.031477377 0.063471846
-0.024212049 -0.031263612 0.063439392
-0.023552919 -0.031570565 0.06360025
0.02337743 -0.031995505 0.063740417
0.024452232 -0.031045089 0.063354939
0.025583491 -0.031890452 0.063533954
0.026210567 -0.031041173 0.063507736
-0.028315343 -0.030343484 0.063216716
-0.027356967 -0.030892644 0.063321643
-0.026238784 -0.030045468 0.063678272
-0.025269672 -0.03015249 0.063596398
-0.024856171 -0.03099126 0.063717291
0.025288582 -0.030980736 0.06363149
0.027735889 -0.030587379 0.063734323
0.028035454 -0.030202741 0.063740939
-0.028432155 -0.029556638 0.063555591
-0.027790122 -0.029593427 0.06350226
-0.026376471 -0.029010059 0.063759156
-0.025799671 -0.029596204 0.063604526
0.025532806 -0.029686831 0.063030839
0.02731351 -0.029667571 0.063700125
0.02878963 -0.029338837 0.063628659
-0.029526418 -0.02841074 0.063666523
-0.028271016 -0.028887572 0.063000597
-0.027528841 -0.028326929 0.063002668
0.02633464 -0.028571093 0.063315481
0.028752182 -0.028500823 0.063596636
0.029289789 -0.028088365 0.063827634
-0.030596431 -0.027745724 0.06315507
-0.029851049 -0.027781492 0.063773513
-0.028620958 -0.027764587 0.063539505
-0.027687645 -0.027261421 0.063989021
0.027304057 -0.027425289 0.063123211
0.028740883 -0.027559627 0.063291997
0.029876135 -0.027378278 0.063384533
0.030799249 -0.0270986 0.063968584
-0.030208843 -0.026439443 0.063473135
-0.029115669 -0.026740458 0.063500926
-0.028377064 -0.026465399 0.063849881
0.028710233 -0.026145309 0.063874461
0.029485431 -0.026468085 0.063406162
0.030593574 -0.02623941 0.063620724
-0.031475347 -0.025150094 0.063722074
-0.030257225 -0.025779199 0.063370258
-0.0294178 -0.025654605 0.063349999
0.030251935 -0.025218587 0.06330511
0.031863902 -0.025881644 0.063764468
0.032214079 -0.025560206 0.063827612
-0.033302188 -0.024449948 0.063359126
-0.032384619 -0.024220033 0.063418619
-0.031385463 -0.024402643 0.063416317
-0.030815311 -0.024953406 0.063950606
0.031592119 -0.024485245 0.063538015
0.032628909 -0.024716882 0.063459039
-0.033612639 -0.023966143 0.06336806
-0.032496359 -0.023732565 0.063595057
-0.031448573 -0.023228209 0.063605115
0.032255001 -0.02385504 0.063607544
0.033102013 -0.023628641 0.063537918
0.034032553 -0.023363933 0.06383647
-0.034341827 -0.022631513 0.063060939
-0.032560918 -0.022400688 0.063232563
0.031649653 -0.022472357 0.063375361
0.03222074 -0.02266885 0.063522272
0.034164291 -0.022574265 0.063722946
0.035024557 -0.022230187 0.063909762
-0.035686456 -0.021732833 0.063509092
-0.034239199 -0.021502191 0.063897707
-0.032566279 -0.021660369 0.063614205
0.032026935 -0.02141544 0.063638583
0.033635966 -0.021297518 0.063624159
0.034190521 -0.021221392 0.06311322
-0.034417912 -0.020364139 0.06355691
-0.033508316 -0.020622641 0.063450664
-0.032874729 -0.020243101 0.063310832
0.033577699 -0.020875866 0.063831225
0.034575745 -0.020310927 0.063537441
-0.03641611 -0.019489348 0.063273251
-0.033893913 -0.019161627 0.063471273
0.035562843 -0.019773731 0.063493639
0.036204085 -0.019439287 0.063396402
-0.036296353 -0.018568102 0.063251443
-0.035472631 -0.018134261 0.063934356
-0.034456953 -0.018531214 0.06362281
0.033211075 -0.01885608 0.063058257
0.034586899 -0.018654235 0.063890211
0.035473712 -0.018371118 0.063735075
-0.037570082 -0.017082606 0.063987568
-0.035738744 -0.01799297 0.063782908
-0.034997936 -0.017838106 0.063849606
0.034326728 -0.017507538 0.063548125
0.036519382 -0.017397687 0.063613817
-0.037321098 -0.016505547 0.063311964
-0.0358054 -0.016714269 0.063732542
0.036338992 -0.016424682 0.063674323
0.037558731 -0.016779125 0.063690111
-0.03753078 -0.015104253 0.063496821
0.034905475 -0.015837373 0.063173525
0.035570607 -0.015599318 0.063558429
0.037535615 -0.015733914 0.063614443
-0.038130663 -0.014146984 0.063294671
-0.037302598 -0.014564716 0.063574649
-0.03628416 -0.014690872 0.063668385
0.036577322 -0.014949816 0.063107572
0.037336677 -0.014713116 0.063698091
0.038373981 -0.014508228 0.063490234
-0.039192136 -0.013541712 0.063537382
-0.036269903 -0.013563246 0.063631102
0.036708526 -0.013208294 0.063463844
0.038500924 -0.013698325 0.063866667
0.0391852 -0.013513864 0.063443601
-0.038546544 -0.012402561 0.063555025
-0.037525944 -0.012958385 0.063677676
-0.036967695 -0.012042239 0.063275963
0.037619863 -0.012349494 0.063239351
0.038439866 -0.012558329 0.06365063
-0.040291723 -0.011776365 0.063673459
-0.037734274 -0.011591541 0.063525066
0.03864751 -0.011385671 0.063545235
0.039409481 -0.011513876 0.063321054
-0.040157042 -0.010998449 0.063279524
-0.038735423 -0.010809331 0.063331999
0.037455168 -0.010648096 0.063334525
0.039402347 -0.010439003 0.063410625
0.040075816 -0.010268881 0.063520394
-0.039179221 -0.0093803145 0.06368725
-0.038225129 -0.0097305216 0.063347422
-0.037505176 -0.0096930899 0.063589118
0.037451804 -0.0098313512 0.063275203
0.038474489 -0.0093204146 0.063501231
0.039239712 -0.0091999564 0.063488595
0.040079918 -0.0098351967 0.063313469
-0.039655842 -0.0085381316 0.063485444
-0.038559999 -0.0086306147 0.063639663
-0.037869751 -0.0081256628 0.063639581
0.036798544 -0.0087916451 0.063159518
0.037983757 -0.0088947713 0.063747928
0.038320623 -0.008838214 0.063246116
0.03935378 -0.0084640607 0.063464791
-0.040622123 -0.0077816127 0.063983575
-0.037732512 -0.0072694169 0.063238069
0.037280221 -0.007305366 0.063894637
0.038105752 -0.00779982 0.063218348
0.039696269 -0.0073299278 0.063385539
-0.03944283 -0.0065768044 0.063350216
-0.038574576 -0.0064261174 0.063630432
0.037762377 -0.0064562536 0.063762866
0.038550042 -0.006526473 0.063497424
0.039332096 -0.0063531883 0.063800365
-0.040145777 -0.0051032556 0.063953161
-0.038620003 -0.0054937857 0.063390873
0.038401011 -0.0050963885 0.06336876
0.039649814 -0.0056871101 0.063573539
0.040488947 -0.0058624689 0.063345067
-0.03945135 -0.0044925897 0.063633777
-0.0388465 -0.0040484304 0.063866273
-0.037856743 -0.0044460315 0.063541882
0.038551062 -0.0047057867 0.063404314
0.039584707 -0.004732071 0.063265651
0.040542036 -0.0046152105 0.063223816
-0.041370336 -0.0035511621 0.063982897
-0.039585147 -0.0033041686 0.063705802
-0.038458358 -0.003750436 0.063076891
0.039361287 -0.0034508158 0.063671634
0.040007919 -0.0031151008 0.063435152
-0.039011266 -0.0023356713 0.063725382
0.037810829 -0.0021784063 0.06309782
0.038824067 -0.0021897135 0.063344978
0.039791279 -0.0028168885 0.063699327
-0.039168086 -0.0011645067 0.063618138
0.038995333 -0.0016066164 0.063589364
0.040545929 -0.0012406167 0.063373677
-0.041051965 -0.00063349865 0.06384936
-0.040466789 -0.00038377693 0.063589118
-0.039738946 -0.00048655347 0.063591406
-0.03867501 -0.00024706783 0.063433655
0.039769497 -0.00028396957 0.063650519
0.0403735 -0.00040558106 0.063545287
-0.040093973 0.00010418147 0.063804567
-0.039417159 0.00040182797 0.063745543
-0.0388765 0.00033964217 0.06373325
0.040027827 0.00047987839 0.063542068
-0.039056998 0.0018268209 0.063704483
0.03888315 0.0013777434 0.063448742
-0.041499194 0.002560935 0.06344194
-0.039578129 0.0027122304 0.063662782
0.038978018 0.0028040123 0.06381391
0.039599262 0.0025899347 0.063631907
-0.04118697 0.0031049573 0.063931569
-0.040033493 0.0033655614 0.063801236
-0.039269049 0.0030380739 0.063893303
-0.038729239 0.0034923404 0.063567482
-0.037884604 0.00386535 0.063394144
0.039667144 0.0035209905 0.063356139
0.040950306 0.0037694089 0.063703865
-0.040200654 0.0045908438 0.063991539
-0.039514266 0.0041485596 0.063547552
-0.038503252 0.0046273014 0.063589454
0.038368329 0.0042072693 0.063468248
0.039284632 0.0043029361 0.063566945
0.04001864 0.0044053402 0.063107491
-0.039472967 0.0053484049 0.063526057
-0.038858753 0.0057394407 0.063832037
-0.037581246 0.0057704756 0.063218459
0.037785538 0.0059559308 0.063791834
0.038637996 0.0057936292 0.063522361
0.039479502 0.0055101505 0.063599795
0.040467061 0.0055273436 0.063097239
-0.040784881 0.0062075257 0.06330625
-0.039439861 0.0062632477 0.063146964
-0.038037062 0.0063247643 0.063336931
-0.037470553 0.0067526102 0.063384332
0.037326504 0.0067739272 0.063997395
0.038406897 0.0062408876 0.063447535
0.039399981 0.0064699859 0.063689381
-0.040539302 0.007227107 0.063796341
-0.038236156 0.0077242982 0.063478768
-0.037800252 0.0076170266 0.063705981
0.037995562 0.0072737616 0.063141689
0.039569467 0.00754668 0.06328024
-0.03947591 0.0084656961 0.063667275
-0.038741637 0.0084961969 0.063564688
-0.03761977 0.0089552114 0.063663915
0.036847647 0.0081438376 0.063476592
0.037539564 0.0083976462 0.063100256
0.038528744 0.0085500283 0.06358964
0.039396409 0.0086271493 0.063465744
-0.039176736 0.0093768314 0.063020676
-0.038473461 0.0093779583 0.063472174
-0.037586372 0.0092960615 0.063910417
0.037357729 0.0095221177 0.063366719
0.038275614 0.0099500166 0.06329117
0.039246663 0.0097919013 0.063506901
0.040060412 0.0095333345 0.063621521
-0.040076017 0.010447031 0.063096292
-0.039226532 0.010756776 0.06393379
-0.037642546 0.010663368 0.063698173
0.039378311 0.010611731 0.063559085
-0.038397372 0.011677039 0.063418105
-0.037490837 0.011159905 0.063211888
-0.036822721 0.01131101 0.063526794
0.037656248 0.011646461 0.063317291
0.038573604 0.011382702 0.063586056
-0.039059274 0.012828102 0.063230813
-0.037522271 0.01246549 0.063677952
-0.036119364 0.012810326 0.063524023
0.036391653 0.012403309 0.063649222
0.037308011 0.012017407 0.063067183
0.038268246 0.012546225 0.063621052
0.039246146 0.012515962 0.063703798
-0.038630284 0.013629194 0.063844845
-0.037505515 0.013589837 0.063352138
-0.036259819 0.013555154 0.06304092
0.036837772 0.013703217 0.063533463
0.038219266 0.013469592 0.063047193
-0.0373285 0.014317249 0.063363075
-0.036279742 0.014162782 0.063684046
-0.035631724 0.014062464 0.063036509
0.035349704 0.014819425 0.06332501
0.036395755 0.014406751 0.063055493
0.037343264 0.014085132 0.063875169
0.038266383 0.014023354 0.063686378
-0.034633547 0.01563685 0.063321084
0.034518786 0.015586562 0.063668154
0.036335323 0.015931852 0.063674591
0.037409425 0.01519115 0.063725144
-0.037340038 0.016494241 0.063620023
-0.0358054 0.016220117 0.063732527
-0.034772553 0.016821492 0.063945726
0.034430686 0.016594572 0.063578278
0.036416419 0.016909441 0.06367287
0.037302982 0.016523115 0.063058823
-0.036069848 0.01754513 0.063035578
-0.035423446 0.017323295 0.063825801
-0.034237191 0.017757975 0.063773252
0.033738934 0.017498456 0.063093163
0.035257928 0.017386885 0.063840181
-0.034582317 0.018856879 0.063239157
-0.033790186 0.018668201 0.063568711
0.034356818 0.018015437 0.063762695
0.035630766 0.018664336 0.063487627
0.036213432 0.01830896 0.063827761
-0.035706423 0.019123795 0.063565403
-0.03318996 0.019996364 0.063750654
-0.032926466 0.019246142 0.063575834
0.033533245 0.019680649 0.063979149
0.034481335 0.019390691 0.063494049
-0.03406278 0.020030852 0.063787915
-0.033791848 0.020401334 0.063698739
-0.032500677 0.020647775 0.063904084
0.031959761 0.020758184 0.063237317
0.03346926 0.020737864 0.063751251
0.034507241 0.020319501 0.063083172
-0.035621516 0.021072617 0.063099407
-0.034208223 0.021287404 0.063775808
-0.032376759 0.02156942 0.063552365
0.031696405 0.021418516 0.063552201
0.033936769 0.021795955 0.063878842
-0.032331403 0.022535993 0.063523471
-0.031437781 0.02291281 0.063346259
0.031129684 0.022230981 0.063987195
0.032306675 0.022571564 0.063499779
0.033986226 0.022252958 0.063959219
-0.033353254 0.0234177 0.063063219
-0.032467857 0.023564478 0.063368931
-0.031678464 0.023732815 0.063612357
-0.030737493 0.023735924 0.06322024
0.030161884 0.023573276 0.063917868
0.031328242 0.023564234 0.063559182
0.032921251 0.023139954 0.063779131
-0.031296507 0.024668803 0.063643813
-0.030374825 0.024343405 0.063575581
-0.029713945 0.024709785 0.063317865
0.030072153 0.024737371 0.063226491
0.031425592 0.024216214 0.063495561
0.032297935 0.024266675 0.063399933
-0.031447813 0.025805991 0.0639323
-0.030214272 0.025704628 0.063197874
-0.029728703 0.025402604 0.063440181
0.028680466 0.025586206 0.063477188
0.029443378 0.025640473 0.063304789
0.030377531 0.025672594 0.06369216
-0.029627927 0.026684126 0.063774608
-0.028813541 0.026375217 0.063095905
-0.027634468 0.026122451 0.063042819
0.027635172 0.02632457 0.063915662
0.029714456 0.026705464 0.063438505
0.030365232 0.026781857 0.063108385
-0.029521406 0.027452227 0.063456491
-0.028383132 0.02712848 0.063543424
-0.027292624 0.027782138 0.063106433
0.026256757 0.027938126 0.063289404
0.028518097 0.027554067 0.063559286
0.029375844 0.027079765 0.06361074
-0.028265156 0.028856698 0.063533403
-0.027520366 0.02808856 0.063911378
0.027279969 0.028206313 0.063923508
0.02860434 0.028520569 0.063685536
-0.026042113 0.02956799 0.063722767
-0.02536892 0.029489323 0.06356661
-0.024647195 0.029688342 0.063705124
0.026975345 0.029466059 0.063450545
-0.026956011 0.030138349 0.063919954
-0.025615038 0.03061451 0.063384958
-0.024397343 0.030128211 0.063610904
-0.023527697 0.030821819 0.06357988
0.023483485 0.030523198 0.063805237
0.024773004 0.030404378 0.063302957
0.025918068 0.030708399 0.063807294
0.027061496 0.030184746 0.063446656
-0.02547555 0.031164005 0.063481107
-0.024278764 0.031840175 0.063503154
-0.023250077 0.031312302 0.063719884
-0.022638075 0.031281658 0.063502319
-0.021190759 0.031860709 0.063613266
0.021662218 0.031943232 0.06337899
0.02304944 0.031530757 0.063600168
0.024016166 0.031549104 0.063487992
0.025222093 0.031078108 0.063626669
-0.024536308 0.03226988 0.063006841
-0.022053843 0.032924026 0.063362055
-0.021580134 0.032285821 0.063418239
-0.020456605 0.032493223 0.063488759
0.020840794 0.032232381 0.063595474
0.021421729 0.032192998 0.063049577
0.02221586 0.032680612 0.063285157
0.02366161 0.032339662 0.063439555
-0.022596357 0.033339988 0.063190863
-0.021535981 0.03369176 0.063125364
-0.020937294 0.033209238 0.063910246
-0.019391188 0.033315074 0.063420296
-0.018083211 0.033863723 0.06381239
0.019332219 0.03322747 0.06374117
0.02051538 0.033168837 0.063721076
0.021826044 0.033376265 0.063187219
-0.021443047 0.034135487 0.063429952
-0.020074759 0.034413844 0.06351082
-0.019142207 0.03477684 0.063925236
-0.018547418 0.034388781 0.063317657
-0.017161302 0.034977615 0.063216008
0.016706811 0.034891672 0.063050158
0.017859867 0.034004793 0.063984454
0.01859674 0.0345474 0.063409902
0.019648297 0.0345366 0.063810885
0.020450702 0.034268886 0.063619874
-0.01956282 0.03501742 0.063126907
-0.018059429 0.035059169 0.06376031
-0.017847041 0.035327908 0.063423559
-0.016363937 0.03525703 0.063684151
-0.015713099 0.035856809 0.063439853
0.015501786 0.03582491 0.063482642
0.017581413 0.035211746 0.063513249
0.018520342 0.035336018 0.063510299
0.019178092 0.035341229 0.063306592
-0.017329996 0.036171198 0.063469678
-0.016172508 0.036290113 0.063645713
-0.015784902 0.036295537 0.063573658
-0.014154474 0.036636222 0.06349583
-0.012612559 0.036874376 0.06352061
-0.011561897 0.03697281 0.063905872
0.013641227 0.036700394 0.063611761
0.014396844 0.036567952 0.06362883
0.015775563 0.036450744 0.06327121
0.016606603 0.036293745 0.063298427
-0.014383812 0.037077714 0.063517801
-0.013449326 0.037186153 0.063927859
-0.012572475 0.037492663 0.063507125
-0.011558653 0.037476614 0.063628934
-0.010536629 0.037605464 0.063574784
-0.0087931119 0.037907928 0.063500002
0.0088218562 0.037919555 0.063303255
0.0094164032 0.037629619 0.063543782
0.010261599 0.037641104 0.063392624
0.011538113 0.037732147 0.063484654
0.012591768 0.03742801 0.063526042
0.01302517 0.037379947 0.06398344
0.014141742 0.037115194 0.063826248
-0.011201708 0.038042534 0.06374184
-0.010971429 0.038022954 0.063492328
-0.0095305843 0.038304918 0.06351164
-0.0084324824 0.038349345 0.063318163
-0.0076572592 0.038580831 0.063818954
-0.0064708055 0.038733363 0.063541263
-0.0058372584 0.038712423 0.06378673
0.0064676749 0.038893029 0.063533045
0.0074712322 0.038318828 0.063580379
0.0085561899 0.038545914 0.063565388
0.0099073052 0.038394604 0.063964151
0.010629177 0.038121849 0.063412912
-0.0072949016 0.039172292 0.063958079
-0.0064191003 0.039219923 0.063184336
-0.0059160148 0.039201278 0.063653156
-0.0045732106 0.039147746 0.063441478
-0.0032741325 0.039166912 0.063641191
-0.0025955532 0.039155088 0.063308641
-0.001563587 0.039203934 0.063535653
-0.00059639552 0.039195951 0.06365528
0.00046905968 0.03919686 0.063679591
0.0013945552 0.039204292 0.063480861
0.0024908497 0.039165393 0.063324869
0.0035200133 0.039152399 0.063735552
0.0043995692 0.039179772 0.063406013
0.0058237808 0.039217807 0.063718192
0.0062862728 0.039157275 0.063706681
-0.0071344795 -0.040014312 0.064247817
-0.0060824445 -0.040073626 0.06438151
-0.0056500528 -0.040038232 0.064624481
-0.0044271685 -0.040073145 0.064416647
-0.0032970894 -0.040082231 0.064372152
-0.002363883 -0.040049996 0.06455078
-0.001498524 -0.040002156 0.064519562
-0.00043006969 -0.040075846 0.064337097
0.0002585873 -0.04005827 0.064321205
0.0017388593 -0.04002887 0.064572856
0.0026823357 -0.040093731 0.064401835
0.0032556374 -0.040060539 0.064404279
0.004474571 -0.040050983 0.064527236
0.0058838218 -0.040051628 0.064380348
0.0067989649 -0.040077381 0.064403623
-0.0095664589 -0.039340712 0.064527407
-0.0083506946 -0.039371658 0.064389467
-0.0072634364 -0.039509643 0.06417954
-0.0067253099 -0.03948554 0.064529337
-0.0059653888 -0.039971121 0.064383447
-0.0045497585 -0.039923098 0.064470887
-0.0027164493 -0.039961811 0.064658932
-0.0014389796 -0.039984491 0.064807169
0.00092713907 -0.039964635 0.064789101
0.001270477 -0.03999418 0.064711921
0.0024460477 -0.039960347 0.064655624
0.0038338522 -0.039975338 0.064208068
0.0055139163 -0.039795306 0.06450747
0.0064763958 -0.039776254 0.064691231
0.007538978 -0.039304513 0.064099923
0.0086542619 -0.039341714 0.064450413
-0.013224998 -0.038043313 0.064084567
-0.011568471 -0.038460225 0.064520203
-0.010441027 -0.038492929 0.064615943
-0.009600685 -0.038689479 0.064325064
-0.0084588751 -0.038742527 0.064669907
0.0087303258 -0.03873086 0.064247116
0.0096572079 -0.038665049 0.064300947
0.010510164 -0.038414061 0.064628556
0.011415826 -0.038589828 0.064460278
-0.017744279 -0.037046134 0.064394556
-0.015575539 -0.037363335 0.064540267
-0.014545565 -0.037595365 0.064258009
-0.013300746 -0.037607461 0.064402871
-0.012605851 -0.037591338 0.064210042
0.01184626 -0.037914265 0.064531706
0.012639562 -0.03771469 0.064483047
0.013615584 -0.037622567 0.064565077
0.014333785 -0.037533253 0.064493947
0.015850071 -0.037266932 0.064363107
0.016459972 -0.037217978 0.064409398
0.017022524 -0.037162766 0.06407591
-0.018839054 -0.036441658 0.064496562
-0.017620724 -0.036561985 0.064206734
-0.016422231 -0.036460657 0.064703703
-0.015162437 -0.036804322 0.064431347
0.014734629 -0.036977086 0.064238682
0.01635232 -0.036353108 0.064858958
0.017142735 -0.036599491 0.064379603
0.018860001 -0.036261398 0.064427055
-0.020340906 -0.035429835 0.064337566
-0.01945178 -0.03543834 0.064087816
-0.018588651 -0.03570487 0.064384349
-0.017628599 -0.035402033 0.064541526
-0.016946726 -0.035845209 0.06444528
0.017749706 -0.035716675 0.064869747
0.01820669 -0.03538597 0.064571954
0.019830074 -0.035478577 0.064519122
0.020246692 -0.035389937 0.064181149
-0.022522047 -0.03414784 0.064500883
-0.021065652 -0.034113467 0.064379252
-0.020832611 -0.034648795 0.064622641
-0.019589577 -0.034504529 0.06436006
-0.018361475 -0.034915168 0.06479615
0.017956575 -0.034674302 0.064455718
0.018817697 -0.03435827 0.06457898
0.019734323 -0.034936208 0.064296842
0.02052602 -0.03423088 0.064303681
0.021317426 -0.034589142 0.064997844
0.02224127 -0.034021512 0.064550072
-0.02336802 -0.033244926 0.064934216
-0.022298519 -0.03352654 0.064341068
-0.0214052 -0.033205491 0.064754121
0.01955286 -0.033975579 0.064137645
0.022216251 -0.033510204 0.064443439
0.023153905 -0.033224262 0.064786896
-0.024351638 -0.032210335 0.064457439
-0.023483844 -0.032756753 0.064564772
-0.022002472 -0.032380048 0.064917378
-0.021808803 -0.03259284 0.064663917
0.021256715 -0.032709986 0.064664796
0.022769064 -0.032648284 0.064851537
0.023689732 -0.032611329 0.064319715
0.024520433 -0.032383755 0.064725719
-0.026428027 -0.031568334 0.064549327
-0.025204644 -0.031511225 0.064122498
-0.024431031 -0.031880178 0.064449407
-0.022627817 -0.031928323 0.064782858
0.023663269 -0.031435445 0.064211018
0.024561618 -0.031598415 0.064451635
0.025611453 -0.031854868 0.064522482
0.026677296 -0.031329636 0.0645331
-0.0272053 -0.030777387 0.06419497
-0.026341461 -0.030466566 0.064408034
-0.025215333 -0.030404577 0.064365238
-0.02424138 -0.03095844 0.064637855
0.025732599 -0.03061612 0.064655177
0.026619107 -0.030387485 0.064210951
0.027304128 -0.03043874 0.064913869
-0.02907851 -0.029501533 0.06477607
-0.028115597 -0.029277684 0.06459669
-0.026573373 -0.029843993 0.064182997
0.025393076 -0.029520847 0.064597294
0.027631683 -0.029371351 0.064239115
0.028440114 -0.029374277 0.064574458
-0.028263679 -0.028598208 0.064306736
-0.027337275 -0.028805338 0.064624637
-0.026261535 -0.02873027 0.064665414
0.027537756 -0.028589269 0.064235345
-0.028683335 -0.027810402 0.064448565
-0.027815614 -0.027365182 0.064559653
0.027555214 -0.027413804 0.064345911
0.028643388 -0.027696457 0.064474687
0.030420361 -0.02749159 0.064328253
-0.031419944 -0.026415795 0.064385444
-0.030175505 -0.026338298 0.064197816
-0.029204629 -0.026255962 0.064014435
-0.028740892 -0.026668908 0.064597018
0.029543502 -0.026218455 0.064506114
0.031277563 -0.026250128 0.064424373
-0.031899288 -0.025396585 0.064596519
-0.030676492 -0.025747079 0.064587563
-0.029211998 -0.025522318 0.064884886
0.030504292 -0.025795534 0.064519487
0.031873193 -0.025712486 0.064322703
0.032252733 -0.02525403 0.064481825
-0.030337855 -0.024435796 0.06478411
-0.029605236 -0.024901833 0.064181536
0.03031515 -0.024228338 0.064468659
0.031027216 -0.024230111 0.064454108
0.032272149 -0.024441324 0.064605281
-0.033892091 -0.023240263 0.064661898
-0.032454476 -0.023642248 0.064240411
-0.031998724 -0.023171313 0.064079672
0.031084487 -0.023851531 0.064963974
0.032743901 -0.023199823 0.064598151
0.033662345 -0.023293879 0.064037725
-0.034130514 -0.022353124 0.064361289
-0.033464875 -0.022711981 0.064551719
-0.032718111 -0.022894669 0.06485077
-0.031980004 -0.02287519 0.064783938
0.031450741 -0.022514164 0.064194448
0.03254129 -0.022502661 0.064691909
0.033974785 -0.022689534 0.064436726
0.034985542 -0.022210438 0.064464137
-0.034250662 -0.021615969 0.064685114
-0.033401631 -0.021093905 0.064630672
-0.032669324 -0.021894403 0.064659402
0.033505581 -0.021685632 0.064222291
0.034988463 -0.02195463 0.064460196
-0.03566974 -0.020244911 0.064289361
-0.034307383 -0.020578891 0.064529046
-0.033775046 -0.020574575 0.064519785
-0.032979608 -0.020803392 0.064048313
0.032683861 -0.020530326 0.064312756
0.03448176 -0.020670185 0.064571291
0.035177603 -0.020345757 0.064382903
-0.035618901 -0.019275641 0.064298414
0.033630308 -0.019717107 0.064366631
0.035207707 -0.019895472 0.064732201
-0.037382688 -0.018036962 0.064665072
-0.035477199 -0.018537141 0.064404823
-0.033942692 -0.018362336 0.064712584
0.034668878 -0.018575042 0.064554855
0.035656307 -0.018406088 0.064738177
0.036490273 -0.018467892 0.064462177
-0.037074782 -0.017196307 0.064863116
-0.035351947 -0.017651726 0.064569026
-0.034913685 -0.017505098 0.06468904
0.035539053 -0.01768114 0.064673349
0.036211394 -0.017484616 0.064318895
-0.037277486 -0.016889229 0.064660043
-0.036897488 -0.016363641 0.064666882
-0.035661433 -0.016676906 0.064574398
0.034667116 -0.016610604 0.064412929
0.035436574 -0.016039841 0.064315289
0.037226018 -0.016415473 0.064478368
-0.038321339 -0.015477046 0.064063445
-0.036786024 -0.015195351 0.06435626
-0.03516601 -0.015894711 0.064745471
0.035845723 -0.015898736 0.064341806
0.036628842 -0.015530074 0.064351246
0.037192367 -0.015263123 0.064436391
0.038314972 -0.015284605 0.064125739
-0.038920928 -0.014229674 0.064228199
-0.03671125 -0.014577616 0.064256936
-0.035970476 -0.014227666 0.064856865
0.037481025 -0.014741171 0.064088643
0.038667373 -0.014166214 0.064857334
-0.038195603 -0.013313274 0.064681664
-0.036467053 -0.013588756 0.064980373
0.037104398 -0.01313892 0.064793035
-0.039152309 -0.012782299 0.064956374
-0.038276076 -0.012458401 0.064262033
-0.037494335 -0.012346876 0.064303055
-0.036650985 -0.012489529 0.06448663
0.036873516 -0.012745477 0.064385869
0.037701856 -0.01285029 0.064413548
0.038226705 -0.012406465 0.064204663
0.039371345 -0.012451528 0.06438528
-0.039467257 -0.011414298 0.064407803
-0.038380571 -0.011025004 0.064692117
-0.037523746 -0.011869195 0.064590603
0.039492667 -0.011498792 0.064758345
-0.037474353 -0.010775336 0.064304844
0.03673299 -0.010691144 0.064510092
0.037436098 -0.010011755 0.064546287
0.038289171 -0.01065933 0.064729072
-0.039429143 -0.0097901179 0.06481877
-0.038553946 -0.0094915619 0.064213492
-0.037126169 -0.009943502 0.064915799
0.037710637 -0.0092469454 0.064715631
0.038670316 -0.0094499206 0.064253956
-0.03977428 -0.0082050925 0.064191796
-0.038073003 -0.0085145654 0.064256966
-0.037306145 -0.0086425412 0.064569794
-0.040006965 -0.0075871088 0.064560153
-0.039512809 -0.0079726707 0.064454734
0.037474144 -0.0073482539 0.06411615
0.040597588 -0.0073726941 0.064827822
-0.040233776 -0.0062390584 0.064087845
-0.039407313 -0.0063377875 0.064134367
-0.038288463 -0.0069370475 0.06441474
0.037629537 -0.0068476647 0.064443707
0.039116681 -0.0063762227 0.064206153
0.040037639 -0.0063709803 0.064020537
-0.0402168 -0.0051251203 0.064376466
-0.039776135 -0.0059064589 0.064523749
-0.03787927 -0.0059778676 0.064885154
0.038631182 -0.0053075906 0.064528406
0.039972741 -0.0059265229 0.064905889
0.04032312 -0.0054225274 0.06495288
-0.041088525 -0.0045623998 0.064690374
-0.038443308 -0.004831885 0.064036496
0.038267355 -0.0044862772 0.064309813
-0.040145326 -0.0032900681 0.064215049
-0.039334711 -0.0031606886 0.06447456
-0.038294047 -0.0031053254 0.064128458
0.038409233 -0.0032098126 0.064378694
0.039523125 -0.0031924737 0.064363837
0.040580846 -0.0033832584 0.064715907
-0.041251134 -0.0029950135 0.064355403
-0.040661763 -0.0020410807 0.064562522
-0.039646007 -0.0020483639 0.064591557
-0.038151227 -0.0024105851 0.064805955
0.040723171 -0.0026451419 0.064568914
-0.040387858 -0.0015443586 0.064534843
-0.038537797 -0.0013839025 0.064527676
0.038832504 -0.001352231 0.064769171
0.039778706 -0.0013540909 0.064506546
-0.040304556 -0.00024706783 0.064393952
-0.03841291 -0.00031171087 0.064427532
0.038985677 -0.00024706786 0.064617291
0.039562814 -0.00033545773 0.064528033
0.040896505 -0.00061739737 0.0643664
0.041286819 -0.00024706783 0.064088017
0.038581431 0.00045136898 0.064744428
0.039305236 0.00041576661 0.064030863
0.040900916 0.00025482755 0.064382046
-0.040446106 0.0012495818 0.06439627
-0.038748886 0.0019875094 0.064713441
-0.04130638 0.0024567835 0.064480811
-0.040117234 0.0027961854 0.064202487
-0.039629221 0.0026996969 0.064347565
-0.038262088 0.0026117403 0.064186811
0.038449943 0.0027737692 0.064641595
0.039492607 0.0026985907 0.064360827
0.040625438 0.0024871463 0.06469515
0.038090348 0.0035288483 0.064482786
0.040473707 0.0032297638 0.064776033
-0.041002151 0.0040033134 0.064494811
-0.040112823 0.0045997351 0.064303964
-0.038354345 0.0040002801 0.064160518
0.038422693 0.0043074149 0.064322874
-0.039366715 0.0056226989 0.064194687
-0.038517337 0.0055311732 0.064575918
-0.037846237 0.0054848683 0.064945295
0.038925394 0.005975456 0.064065695
0.039596919 0.0054418668 0.064459346
-0.040231999 0.006768899 0.064802036
-0.038331453 0.0063569406 0.064134955
0.037525002 0.0065121804 0.064279646
0.038280059 0.0062003206 0.064946234
-0.039673734 0.0075185653 0.064333066
-0.03843043 0.0075995829 0.064014986
-0.037837934 0.0076198354 0.064583071
0.036942188 0.0071700905 0.064817213
-0.038452793 0.0085312389 0.064136051
-0.03721318 0.0083255405 0.064571194
0.037491769 0.0084594488 0.064483091
0.038399123 0.0085451119 0.06432648
-0.039628506 0.0091943517 0.06492199
-0.038773052 0.0093125897 0.064512305
-0.037805848 0.0095196515 0.064397782
0.03656742 0.0099996515 0.064208329
0.037546337 0.0094613675 0.064654142
0.038651023 0.0091900239 0.064349979
-0.040235937 0.010151649 0.06479992
-0.039176747 0.01059095 0.064071462
-0.037399113 0.010403944 0.064089328
0.03677471 0.010307198 0.064400092
0.039415479 0.010610182 0.064728662
-0.03813833 0.011589394 0.064199388
-0.037616085 0.011519844 0.064313091
-0.03680902 0.011368096 0.064355761
0.036653608 0.011961823 0.064152911
0.038046073 0.01179387 0.064214922
0.03923234 0.011725826 0.064631939
-0.039108936 0.012300882 0.064902127
-0.038719602 0.012380053 0.064178981
-0.037859216 0.012315722 0.064417556
-0.036623809 0.012496023 0.064830489
0.035898805 0.012623964 0.064706467
0.036877643 0.012496501 0.064666927
0.037447445 0.012123682 0.064345032
0.03831885 0.012570086 0.064102724
-0.036619682 0.013439939 0.064178981
0.038579609 0.01322731 0.064079963
-0.036550414 0.014453918 0.064351343
0.036651634 0.01471597 0.064336754
0.037330646 0.014478463 0.06428615
0.038408373 0.014322344 0.064855851
-0.038258575 0.015009595 0.064311333
-0.0366497 0.015643185 0.064549714
-0.03503244 0.015313089 0.064979397
0.035650413 0.015283474 0.064260431
0.037593931 0.015393587 0.064141743
-0.037097178 0.016274989 0.064452827
-0.036854513 0.016417235 0.064630322
-0.035433304 0.016037401 0.064644247
0.034642715 0.016219951 0.064762495
0.036160454 0.016673123 0.064338937
0.037158236 0.016366504 0.06423597
-0.037283223 0.017656058 0.064071737
-0.035369679 0.017440708 0.064524278
-0.034807768 0.017017018 0.064749703
-0.033888783 0.017349891 0.064935416
0.034630861 0.017761631 0.06496416
0.035571128 0.01741345 0.064593419
0.036530152 0.017579947 0.064567208
-0.035451129 0.018632317 0.06421911
0.033735633 0.018886931 0.064408585
0.034555349 0.018008199 0.064102188
0.036351681 0.018134939 0.064627662
-0.035620645 0.019924423 0.064610206
-0.034105789 0.01973962 0.06467998
-0.033829834 0.019871902 0.064057492
0.032563165 0.019961605 0.064052507
0.033633571 0.019319834 0.064371131
0.034701724 0.019573361 0.064718962
0.035073772 0.019858558 0.064442478
-0.035626803 0.020305799 0.064871132
-0.034158327 0.02055506 0.0643939
-0.033357862 0.020209473 0.064828508
-0.032830175 0.020081291 0.064300306
0.033918917 0.020299911 0.064375222
0.034570813 0.020152325 0.064712152
-0.035108354 0.021964414 0.064716503
-0.03441086 0.021568799 0.064839318
-0.033537846 0.021633226 0.064416498
-0.032492451 0.02137387 0.064825661
0.032492302 0.021522682 0.06442333
0.033608146 0.021391902 0.064403757
0.034822851 0.021358177 0.064750038
0.035120975 0.021373305 0.064472832
-0.033727314 0.02240357 0.064344175
-0.032436095 0.02250107 0.064606525
-0.031578582 0.022366308 0.064489819
0.030653391 0.022434779 0.064831622
0.032602217 0.022469239 0.064652286
0.033694319 0.022554893 0.064221546
-0.033323552 0.023754902 0.064630546
-0.031976316 0.023014078 0.064052589
-0.030284673 0.023326918 0.064908519
-0.0296469 0.023964338 0.064419873
0.029786605 0.023485323 0.064958625
0.03046101 0.023391966 0.064463809
0.031758577 0.023107119 0.064063169
0.032618701 0.023831999 0.064098686
-0.032320298 0.024969585 0.064733386
-0.031685669 0.024599023 0.064379185
-0.03043332 0.024927646 0.064293236
0.030250963 0.024978599 0.064303309
0.031747993 0.024809774 0.064547956
0.03224032 0.024410779 0.064520434
-0.0312723 0.025365228 0.064594433
-0.03039523 0.025358165 0.064782277
-0.02991569 0.025390903 0.064145871
-0.028678143 0.025747532 0.064145304
0.028910559 0.025708761 0.064795554
0.029742839 0.025381982 0.064422622
0.030713996 0.025372507 0.064573646
0.031487048 0.025417808 0.064575881
-0.030509803 0.026891919 0.064685501
-0.028723992 0.026039716 0.064872086
-0.027833 0.026318967 0.064579129
0.028712502 0.02699849 0.0646635
0.030486653 0.026486561 0.064501561
-0.028403655 0.02747885 0.064372413
-0.027711172 0.027421251 0.064524651
0.026398197 0.027581431 0.064954966
0.027415823 0.02762644 0.064217687
0.028282238 0.027251489 0.064252436
-0.029118087 0.028585177 0.064449586
-0.028641369 0.028017778 0.064899139
-0.027458653 0.028392678 0.064579591
-0.026207352 0.028279141 0.064031124
0.025656048 0.028243594 0.064185381
0.026850272 0.028208511 0.06406036
0.02743743 0.02882345 0.064283237
0.02840537 0.028619209 0.064379364
-0.026366407 0.029520264 0.064353451
-0.025112776 0.029373784 0.064445294
0.024143932 0.029969648 0.06433107
0.025248917 0.029273923 0.064441115
0.026334211 0.029666565 0.064208262
0.027603026 0.029645696 0.064414427
0.028063379 0.029161759 0.064919814
-0.026281416 0.030838843 0.064498439
-0.025288753 0.030433198 0.06443993
-0.024923908 0.030227734 0.064191401
-0.023358312 0.030602794 0.064143114
0.023741106 0.030700434 0.064323001
0.024795532 0.030484667 0.064067841
0.025730925 0.030049406 0.064560093
0.026623756 0.030289192 0.064645477
-0.024369936 0.031436659 0.064341545
-0.023642438 0.031346511 0.064371653
-0.021616774 0.031902179 0.064529188
0.02170638 0.031810202 0.064682066
0.022497743 0.031447921 0.064847574
0.023539318 0.031363506 0.064521052
0.024560833 0.031752415 0.06481038
0.025314756 0.031288609 0.064484045
-0.023357226 0.032499034 0.064553887
-0.022698998 0.032091469 0.064485133
-0.02143448 0.032134578 0.064813077
0.02069697 0.032173797 0.064949222
0.021636898 0.032818034 0.064740427
0.022539496 0.032308049 0.064551413
0.023388913 0.032221325 0.064351954
-0.022470966 0.033268817 0.064192988
-0.021708984 0.033310313 0.064279214
-0.02069506 0.033318058 0.06447345
-0.019429307 0.033654217 0.064352572
-0.018653106 0.033850305 0.064282082
0.018593309 0.033569846 0.064593166
0.019433897 0.033572845 0.064415537
0.020571053 0.033256114 0.064336754
0.021928672 0.033318885 0.06400878
0.022054074 0.033278547 0.064844042
-0.020565659 0.034268282 0.064430147
-0.01904784 0.034054872 0.06440369
-0.018323479 0.034789603 0.064334817
-0.017529644 0.034970921 0.064314336
-0.01687767 0.03481428 0.064557023
0.017776003 0.034437269 0.064122416
0.018047683 0.034619637 0.064540699
0.01973905 0.034631416 0.064519927
0.020380221 0.034419525 0.064298876
-0.01837763 0.035437651 0.064567059
-0.017221691 0.035441242 0.064310908
-0.016223088 0.035447963 0.064459547
-0.015009757 0.03584677 0.064009532
0.014688646 0.035987414 0.064196937
0.016513251 0.035659604 0.064492539
0.01751394 0.035469711 0.064512484
0.018655526 0.035497814 0.064550512
-0.017636493 0.036256187 0.064303622
-0.01622491 0.036574982 0.064749382
-0.015468038 0.036400843 0.064610094
-0.01454262 0.036394291 0.064429015
-0.013499823 0.036442328 0.064178526
-0.012393842 0.036760069 0.064351059
0.011588315 0.036953248 0.064947687
0.01254609 0.036650416 0.064605415
0.013521299 0.036487684 0.064607732
0.014593211 0.036643445 0.064562023
0.015466461 0.03621554 0.064320244
0.016367212 0.036341459 0.064488024
0.017045531 0.036264714 0.064301714
-0.012495774 0.037248671 0.064562738
-0.011518423 0.037497792 0.06458234
-0.010288357 0.03738939 0.064988308
-0.0095297778 0.037796393 0.06437131
-0.008773746 0.037858151 0.064333737
0.0084163612 0.037929982 0.064637341
0.0097373324 0.037681952 0.064533219
0.010622002 0.037355516 0.064380445
0.011526641 0.037435692 0.064409651
0.012747249 0.037287403 0.064289682
0.013371144 0.037163485 0.064738303
0.014345166 0.037128225 0.064836346
-0.010184716 0.038342539 0.064543538
-0.0097328303 0.038336284 0.06431511
-0.0086187888 0.038286015 0.064235881
-0.0076588411 0.03856124 0.064603105
-0.0065738801 0.038600545 0.064387269
-0.0057618767 0.038970426 0.064221345
0.0063647982 0.038653746 0.064131126
0.0078704515 0.038676579 0.064345859
0.0086182235 0.038515013 0.064447433
0.0094991243 0.038203023 0.064395651
0.010206808 0.038286652 0.064031668
-0.0064233211 0.039156906 0.064729631
-0.0054492624 0.039187953 0.06446667
-0.0045234114 0.039145119 0.064471886
-0.0034553416 0.039136883 0.064541653
-0.0027655186 0.039176609 0.06435781
-0.0014723049 0.03919616 0.064485885
-0.00049853808 0.039146848 0.064451255
0.00045912934 0.039171521 0.064356141
0.0015408468 0.039178535 0.064736344
0.0026458332 0.039159212 0.06428156
0.0032783744 0.03915704 0.064594194
0.0042625619 0.039183147 0.064444348
0.0054136133 0.039070185 0.064369746
0.0064645004 0.039092787 0.064736977
-0.0064153639 -0.040030506 0.065033093
-0.0042149187 -0.040041789 0.065146767
-0.0033588856 -0.040060747 0.065275602
-0.0027916823 -0.040022198 0.065658115
-0.0014515991 -0.040037822 0.065465651
-0.00013504575 -0.040035531 0.065379605
0.00073772296 -0.040039387 0.065374151
0.00140366 -0.040038601 0.065511152
0.0026133228 -0.040039804 0.065619498
0.0034714898 -0.040049229 0.065144092
0.0040660216 -0.040002216 0.065681256
0.0055574807 -0.04003904 0.065727003
-0.01025601 -0.039115746 0.065172836
-0.0085804705 -0.03970737 0.065655172
-0.0075925719 -0.039312363 0.065893874
-0.0060981186 -0.039945424 0.065802738
-0.0057541002 -0.039939351 0.065123469
-0.0046242871 -0.039967127 0.065644994
-0.0034055887 -0.039991509 0.065801241
-0.0017398833 -0.039981734 0.065949336
-0.00055277767 -0.039971597 0.065457977
0.00027943798 -0.039974403 0.065460131
0.0014668317 -0.039983142 0.065947175
0.0031362697 -0.039992191 0.065801501
0.0046464102 -0.039966039 0.065572865
0.0053300373 -0.039871063 0.065372989
0.0067102308 -0.039933503 0.065767482
0.0074256752 -0.039489593 0.065726817
0.008413706 -0.039690565 0.065925598
0.0094197998 -0.039303418 0.065711237
0.010233645 -0.03911148 0.065166481
-0.013645463 -0.03811416 0.06557852
-0.012584252 -0.038447104 0.065598212
-0.011024075 -0.038104985 0.065815724
-0.010699046 -0.038184222 0.065363362
-0.0096258493 -0.038461205 0.065418415
-0.0085145347 -0.038794447 0.065227278
0.008399168 -0.038784105 0.065162808
0.0099165179 -0.038138721 0.065422371
0.010576649 -0.038921576 0.065809168
0.011051193 -0.038858108 0.065378323
0.012771102 -0.038243745 0.06544181
0.013024231 -0.038342983 0.065060325
-0.016417008 -0.037310511 0.065125734
-0.015429795 -0.037335962 0.065665819
-0.014653604 -0.037618458 0.065638155
-0.013531323 -0.037408281 0.065389089
-0.012762377 -0.037462454 0.065171912
-0.011704128 -0.037753426 0.06532786
0.011434129 -0.03780074 0.06517987
0.012551278 -0.037570845 0.065110296
0.013710837 -0.037700035 0.0654888
0.014648517 -0.037397113 0.065577388
0.015322306 -0.037583485 0.065672055
0.016125459 -0.037005607 0.065904677
0.017332913 -0.037030183 0.065313645
-0.019137513 -0.036302686 0.065517545
-0.018865842 -0.036043897 0.065232396
-0.017799836 -0.036568031 0.065617733
-0.01660198 -0.036496222 0.06523709
-0.014868458 -0.036984708 0.065320626
0.01669034 -0.036552873 0.065269619
0.017682908 -0.036797479 0.065499619
0.019229995 -0.036089674 0.065512225
-0.020600205 -0.035268914 0.06587325
-0.019254999 -0.035433542 0.065535299
-0.018410452 -0.035722949 0.065294214
-0.017427592 -0.035432208 0.065509416
0.01720649 -0.035409264 0.065549053
0.018520737 -0.03572144 0.065488756
0.019538516 -0.035341837 0.065725863
0.020519249 -0.035120033 0.065738752
-0.020270467 -0.034425583 0.065530241
-0.019682162 -0.034495234 0.065970704
-0.018071014 -0.034997828 0.065743424
0.018780084 -0.03455567 0.065235972
0.020148814 -0.034412052 0.065543741
-0.023288876 -0.03358864 0.065457292
-0.022245659 -0.033475041 0.065766439
-0.021709451 -0.033245064 0.065411352
-0.02048512 -0.033764645 0.065784112
0.019957852 -0.033959001 0.065183893
0.021578208 -0.033475071 0.065368049
0.022865117 -0.033459283 0.065179296
0.023002241 -0.033729356 0.065995365
-0.025424939 -0.032303058 0.065779582
-0.024436921 -0.03280225 0.065952703
-0.022754731 -0.032424118 0.065395363
-0.021649174 -0.032870881 0.065703288
0.020593835 -0.032975059 0.065359235
0.022640428 -0.032340858 0.065402113
0.024411172 -0.032695979 0.065376684
-0.026535444 -0.03153855 0.065441132
-0.025697447 -0.03120514 0.065325648
-0.023166243 -0.031698108 0.065656185
0.02280831 -0.03161104 0.065600127
0.023283876 -0.031843409 0.065006383
0.025643349 -0.031373125 0.065259188
0.026403936 -0.031135028 0.065926388
-0.028185926 -0.030223003 0.065857902
-0.026514165 -0.030710738 0.065573059
-0.025303967 -0.030913483 0.065343656
-0.02498031 -0.030615509 0.065971017
0.023857716 -0.030809 0.065232188
0.026418958 -0.030390538 0.065551594
0.027573625 -0.03043 0.065527916
-0.028840825 -0.029388122 0.065787867
-0.026746698 -0.029944932 0.065573871
0.025922121 -0.029362487 0.065698765
0.026141962 -0.029874813 0.065667741
0.027700718 -0.029706471 0.065299779
0.028457571 -0.029573109 0.065425262
0.029076044 -0.029168719 0.065200217
-0.029860213 -0.028588744 0.065619394
-0.028754529 -0.028488588 0.065462813
-0.027305497 -0.028587895 0.065196387
-0.026582887 -0.028594732 0.065317169
0.026584463 -0.028352275 0.065506466
0.027398003 -0.028706281 0.065697983
0.028744642 -0.028201055 0.065365188
-0.030577535 -0.027435906 0.065399796
-0.028290702 -0.027432421 0.06513831
0.027191456 -0.027809899 0.06579721
0.029701013 -0.027085871 0.065108947
0.030632235 -0.027210945 0.065481581
-0.030115301 -0.026968567 0.065450825
-0.028289698 -0.026823744 0.065111391
0.028177198 -0.026535336 0.06585627
0.029491495 -0.026688067 0.065439023
0.03077483 -0.026846575 0.065968201
-0.032463964 -0.025581161 0.065470129
-0.03155376 -0.025843048 0.065092824
-0.03055964 -0.025385598 0.065079823
-0.029877026 -0.025617823 0.065070651
0.028790889 -0.025428018 0.06554997
0.029364893 -0.025393054 0.065585867
0.030838491 -0.02551426 0.065038532
0.031398155 -0.025794428 0.065295532
0.032062534 -0.025641501 0.065260977
-0.033354953 -0.024409864 0.065251715
0.029745739 -0.024307093 0.065601125
0.031119149 -0.02423648 0.065913588
0.032058049 -0.024715535 0.065707907
0.033317581 -0.0241358 0.065441415
-0.033897277 -0.023468465 0.065865934
-0.032655999 -0.023294674 0.065593913
-0.031535454 -0.023462173 0.065556653
-0.030658785 -0.023761861 0.065428093
0.030642796 -0.023355741 0.065593541
0.032479338 -0.023556555 0.065410055
0.03351111 -0.023360778 0.065676764
-0.035005689 -0.022648472 0.065498888
-0.034747448 -0.022787515 0.065573424
-0.031881124 -0.022708774 0.065585412
0.032172911 -0.022571266 0.065514058
0.033906221 -0.022400513 0.065232143
0.034436084 -0.022215594 0.065682545
-0.035765734 -0.021015963 0.065181963
-0.033294369 -0.021858793 0.065502763
0.032987036 -0.021878064 0.065392278
0.034362696 -0.021373857 0.065355629
0.035367038 -0.021191042 0.065149434
-0.035378177 -0.020177519 0.065377064
-0.034354672 -0.020724479 0.065591559
-0.033554897 -0.020472202 0.065467805
0.032654408 -0.020057295 0.065706722
0.033997413 -0.020597966 0.065669388
0.034942109 -0.020702325 0.065727234
0.0352352 -0.02078893 0.065510944
-0.035939328 -0.01949805 0.065956309
-0.034522537 -0.019224372 0.065437503
0.033590704 -0.019555097 0.065827429
0.034822501 -0.019064974 0.065537006
0.035942949 -0.019274876 0.065223165
-0.035720199 -0.01869558 0.065578692
0.03453511 -0.018626146 0.065558836
0.036364976 -0.018600736 0.065402471
-0.037455425 -0.017577659 0.065284684
-0.036277641 -0.017227802 0.065444209
-0.035386667 -0.017895099 0.06504406
-0.034601219 -0.017518554 0.065766677
0.034168139 -0.017107306 0.065180846
0.035262346 -0.01782712 0.065927811
0.037016734 -0.017500671 0.065965824
-0.035210356 -0.01621943 0.065588944
0.034531504 -0.016699791 0.065466262
0.035211571 -0.016548648 0.065470926
0.037657946 -0.016116738 0.065649301
-0.037492208 -0.015390629 0.06554085
-0.036177184 -0.015086671 0.065219969
-0.035420965 -0.015691699 0.065240026
0.035989489 -0.015596597 0.065814704
0.038125034 -0.015043436 0.065619811
-0.038445085 -0.014263093 0.065736502
-0.036154777 -0.014654597 0.065416396
0.035444669 -0.014829887 0.065529235
0.037782669 -0.014930876 0.065481491
0.038375702 -0.014629762 0.065967649
-0.038446561 -0.013791568 0.065223575
-0.037640631 -0.013537229 0.065799966
-0.035773631 -0.013823623 0.065479413
0.03582304 -0.013938365 0.065704755
0.036042027 -0.013349771 0.065028131
0.037021939 -0.013740318 0.065476522
-0.039895497 -0.012205946 0.065951645
-0.037223261 -0.012947349 0.06585297
0.037256368 -0.012070433 0.065683208
0.039335359 -0.012355741 0.065595075
-0.040097367 -0.011594825 0.065896139
-0.036907136 -0.011550141 0.065598466
0.039550651 -0.011439448 0.065463588
-0.040313471 -0.010762807 0.065036677
-0.039271463 -0.010800224 0.0655993
-0.038857751 -0.010217731 0.065596372
0.038291182 -0.010273453 0.065525658
0.03948978 -0.010858033 0.065668017
-0.0374275 -0.0090154456 0.065487429
0.039487924 -0.0097264117 0.065570287
-0.038251165 -0.0084408596 0.065167464
-0.037461519 -0.0088648461 0.06564711
0.039743062 -0.0084900511 0.065241098
0.040350288 -0.0085403174 0.065504946
-0.040624525 -0.0071281344 0.065707937
-0.039746556 -0.0075074206 0.065613516
0.037177779 -0.0074907136 0.065264732
-0.040108792 -0.0065311575 0.065314651
-0.039877329 -0.0067951856 0.065997809
0.038475357 -0.0068271612 0.065055177
0.03999684 -0.00693327 0.065149993
0.040112838 -0.0067523257 0.065113403
-0.039482988 -0.0056190323 0.065996893
-0.038416259 -0.0059615611 0.065972976
0.039773017 -0.0055615362 0.06570968
0.040506236 -0.0059623639 0.065540276
-0.040224932 -0.0041920943 0.065627754
-0.038185485 -0.0040990384 0.065506011
0.037786309 -0.004413805 0.065994777
-0.041217875 -0.0037170127 0.065912157
-0.040335637 -0.0035806894 0.065367237
-0.038829491 -0.0031003514 0.065731585
